-0.275086 -0.251008 0.907771 0.948856 0.0580015 -0.311769 -0.0169464
-0.589079 -0.974762 0.980429 0.978546 -0.118058 -0.180272 -0.0177614
-0.675548 -0.421281 1.22661 0.788023 0.0163838 0.617306 0.0988119
-0.0233316 -0.225252 0.771351 0.934692 0.0396032 -0.355936 -0.0322082
-0.149873 -0.692168 0.958349 0.900966 -0.0659265 0.42655 0.0797131
0.553006 -0.483171 0.980562 0.945759 0.0421904 0.33299 0.0211283
-0.626883 -0.413332 1.13611 0.767299 0.0181062 0.625797 0.105521
-0.359136 -0.661228 0.665196 0.769916 -0.0806301 0.617985 0.172843
-0.140058 -0.451121 0.803033 0.699892 -0.0237061 0.710849 0.141677
0.673336 -0.609242 1.01988 0.952551 0.020843 0.316465 0.0112339
-0.86354 -0.932856 0.719059 0.873604 -0.240586 -0.44084 -0.130333
-0.059644 -0.206652 0.683534 1.00006 0.0502153 -0.00557523 0.0248165
0.765344 -1.21398 1.17461 0.958588 -0.202972 -0.207527 -0.0690004
-0.191459 -0.22539 0.844936 0.934352 0.0450132 -0.355864 -0.026681
0.720759 -1.01987 0.534626 0.982953 -0.100145 0.156392 0.0774999
-0.743076 -1.03861 1.17236 0.923987 -0.201526 -0.31878 -0.102229
0.44169 -1.07903 0.580762 0.96783 -0.157869 -0.209998 -0.0219144
-0.556017 -1.03726 1.12013 0.973941 -0.241168 -0.0286404 0.0295589
0.528494 -0.502227 0.991532 0.944953 0.0355342 0.336188 0.0278708
0.627615 -1.1347 0.288173 0.804012 -0.133292 0.518773 0.265157
0.468666 -1.17829 1.19237 0.937621 -0.234993 -0.258282 -0.0856892
-0.0494441 -0.880427 0.804112 0.853137 -0.184202 -0.461707 -0.196943
-0.107785 -0.499257 0.539003 0.903301 -0.0292491 0.0959161 0.0208453
-0.715242 -1.03236 1.15531 0.923577 -0.19918 -0.320396 -0.104617
-0.218014 -1.12133 1.41974 0.739614 -0.119931 -0.62391 -0.213646
-0.987195 -1.05867 1.39041 0.922681 -0.1252 -0.366426 -0.0592175
-0.301042 -0.231412 0.892671 0.946357 0.0674162 -0.316528 -0.0147483
0.760632 -1.21252 1.18618 0.959605 -0.202864 -0.203442 -0.0672924
0.438616 -1.03364 0.643133 0.981926 -0.136117 -0.146311 0.00495528
0.626783 -1.14638 0.299655 0.804704 -0.132813 0.516151 0.267344
0.487755 -1.15457 0.434132 0.898164 -0.211448 0.301555 0.161762
-0.186327 -0.560174 0.809263 0.830588 -0.0407268 0.545305 0.140838
0.084928 -0.724129 0.674127 0.736881 -0.0771785 0.662472 0.155903
0.783825 -0.839877 0.520836 0.927898 -0.0780794 -0.370224 -0.036548
-0.108414 -0.878379 0.859178 0.859166 -0.186135 -0.48717 -0.208048
0.747171 -0.934487 0.345305 0.985653 -0.146391 -0.0647751 0.0077761
0.474541 -0.831864 0.733791 0.868516 -0.0573116 0.474875 0.162332
-0.0519071 -0.204595 0.709231 1.00045 0.0482468 -0.0113604 0.022088
0.127352 -0.530906 0.364203 0.847693 -0.0527888 -0.41074 -0.0635718
0.352119 -1.09763 0.451787 0.915023 -0.196759 0.321671 0.162244
-0.293262 -1.07675 0.632896 0.886896 -0.202332 0.251221 0.131713
-0.00568417 -0.62797 0.419028 0.58519 -0.0883086 -0.241183 -0.0330341
0.761303 -1.21696 1.21832 0.963464 -0.202244 -0.188234 -0.058621
0.344856 -0.482292 1.3529 0.912358 0.032173 0.409564 0.0859326
-1.01072 -0.373196 1.41811 0.742064 0.0127387 0.671033 0.109704
0.47686 -1.13097 0.407974 0.911427 -0.198876 0.324189 0.167216
-0.936664 -1.04894 1.36469 0.921065 -0.124278 -0.370379 -0.0624376
0.452125 -1.11983 1.02212 0.939116 -0.198183 -0.274787 -0.108397
0.0159304 -0.151003 0.413464 0.768355 0.0332621 -0.149329 -0.00365863
-0.5165 -0.97043 1.12034 0.974715 -0.226372 -0.0505614 -0.0173067
0.849582 -1.08762 0.152846 0.929371 -0.153385 0.303083 0.146502
0.225506 -1.03935 0.378052 0.937038 -0.183697 0.268479 0.141522
-0.0736772 -0.823515 1.07475 0.89161 -0.0832244 0.444301 0.0696425
0.767195 -1.21532 1.15895 0.956749 -0.203915 -0.214099 -0.0710002
0.374368 -0.559654 1.48178 0.887275 0.0238054 0.462444 0.0847312
0.113276 -0.258732 0.30752 0.893876 0.0328721 -0.179487 0.0119213
-0.634208 -0.471813 1.27347 0.800764 0.0100678 0.600162 0.0911216
0.803289 -1.03384 0.47647 0.963784 -0.115957 -0.249584 -0.0194826
0.735273 -1.02786 0.522554 0.98411 -0.102852 0.148173 0.075936
-0.539697 -0.478573 1.25814 0.827489 0.00922754 0.564368 0.0806142
0.573308 -1.03084 0.385729 0.911362 -0.130014 0.360185 0.162456
-0.905325 -1.00399 1.30326 0.900805 -0.131376 -0.413994 -0.0761803
-0.198251 -0.231953 0.829746 0.940683 0.0441589 -0.338287 -0.0270048
0.456576 -0.681841 1.56656 0.900923 0.116623 0.412883 0.122414
-0.313507 -0.997877 1.28746 0.745404 -0.122617 -0.650771 -0.22417
-1.21106 -1.06516 1.46141 0.975034 -0.0872496 -0.213705 0.00931269
0.0245321 -0.649413 0.77367 0.676477 -0.0637649 0.721677 0.16841
0.775607 -1.19485 1.10666 0.957415 -0.208561 -0.206196 -0.0617362
0.578321 -1.10998 0.282286 0.909431 -0.214467 0.0421314 0.0739609
-0.86973 -0.914149 1.3908 0.983637 -0.0753264 -0.171224 -0.00208779
0.55951 -0.908966 0.51152 0.978143 -0.0803917 -0.204248 0.00243459
-0.136106 -0.829235 0.627259 0.975154 -0.128356 -0.185302 -0.0495178
0.038887 -0.843546 0.739992 0.95409 -0.066638 0.276842 0.12149
-0.725419 -0.493773 1.18855 0.738634 -0.0163577 0.671512 0.122735
-0.0831647 -0.524045 0.827386 0.676689 -0.0381953 0.727692 0.151511
0.423614 -0.86312 0.656365 0.832345 -0.109803 0.533207 0.134625
0.708117 -0.899069 0.747483 0.981975 -0.0685251 0.177646 0.0610441
0.778296 -0.956255 0.430206 0.983469 -0.137342 -0.113184 -0.00606117
0.633248 -1.13297 0.853444 0.944278 -0.189029 -0.272377 -0.0783278
-0.651008 -1.02139 1.1886 0.930791 -0.186116 -0.305591 -0.107051
-0.86162 -0.996157 0.848423 0.895014 -0.228414 -0.388521 -0.100504
-0.125999 -0.71584 0.469575 0.792372 -0.0866975 0.577804 0.198121
0.619618 -1.13248 0.338523 0.811249 -0.141434 0.509836 0.254454
0.838681 -1.04076 0.0979589 0.936067 -0.15419 0.290215 0.132865
-0.338629 -1.11252 0.745884 0.881844 -0.204858 0.329596 0.156432
0.552871 -0.689454 1.23769 0.893633 0.0309789 0.439411 0.127331
0.124478 -0.860662 0.539761 0.740662 -0.141811 0.63752 0.187397
-0.62736 -0.970934 1.02333 0.976828 -0.113037 -0.190024 -0.0210703
-0.188685 -0.449409 0.951123 0.788207 -0.0135088 -0.603952 -0.0854356
0.238739 -1.152 1.18854 0.944337 -0.238082 -0.233296 -0.0693688
-0.000567766 -0.509518 0.436394 0.751638 -0.0357858 0.55213 0.153785
-0.370565 -0.886225 1.01881 0.951896 -0.126735 -0.267181 -0.0997137
-0.200763 -0.877269 0.872055 0.901162 -0.135623 0.407315 0.104043
0.321465 -0.798646 0.804195 0.915076 -0.110827 -0.380744 -0.12647
0.906212 -1.04997 0.594624 0.984409 -0.120404 -0.138375 0.0103967
0.88393 -0.969029 1.02153 0.921306 -0.0613213 0.386523 0.0638553
-0.273948 -0.452029 1.45014 0.799979 0.0551476 0.607986 0.0441106
0.539052 -0.977278 0.705392 0.952942 -0.104054 -0.290776 -0.0438899
-0.111932 -0.726717 0.465084 0.787296 -0.0944115 0.583231 0.198876
-0.397963 -0.875706 1.16915 0.803989 -0.126395 -0.551291 -0.189656
0.169871 -0.7676 0.385414 0.815067 -0.0748145 0.540982 0.209013
-1.32019 -1.12102 1.63846 0.962372 -0.101538 -0.260058 -0.0151899
-0.557907 -0.949104 0.87152 0.901243 -0.217594 -0.390828 -0.121232
-0.562668 -0.998582 1.20245 0.974167 -0.242202 -0.0211251 0.0159643
0.344448 -0.494345 1.29373 0.913074 0.027065 0.409891 0.0759311
-0.580379 -0.953336 1.0772 0.919159 -0.162934 0.361461 0.0739828
-0.876855 -1.01556 1.01432 0.906287 -0.201387 -0.372489 -0.0909376
-0.072358 -0.220545 0.780178 1.00074 0.0471039 -0.00138549 0.0244085
0.168858 -0.88255 0.504585 0.698782 -0.155324 0.674064 0.216958
-0.363807 -0.229614 0.914369 0.948659 0.0687633 -0.310086 -0.0165182
0.252527 -0.827909 1.055 0.931192 -0.00559366 0.342662 0.141055
0.122437 -0.876298 0.56548 0.732664 -0.141868 0.646082 0.188773
-0.442556 -1.17978 0.809762 0.930393 -0.234206 0.160853 0.120199
-0.0463043 -0.743648 0.612342 0.772119 -0.148896 -0.467723 -0.160892
-8.53129e-05 -0.385588 0.773773 0.944184 0.00926438 -0.333544 -0.0432189
-0.198402 -0.833883 0.975255 0.856817 -0.121778 -0.499317 -0.0932296
0.389553 -1.17211 1.20777 0.937617 -0.238014 -0.255205 -0.0822856
-0.0438691 -0.736697 0.49331 0.788224 -0.0905462 0.585702 0.191691
-0.162406 -1.14727 1.43369 0.738352 -0.123126 -0.627593 -0.20808
-0.844501 -1.03849 1.14532 0.919411 -0.208774 -0.330418 -0.0954448
-0.167282 -0.999229 1.06701 0.88519 -0.218076 -0.397413 -0.159679
-0.125775 -0.474726 0.62724 0.778072 -0.0187459 0.496739 0.108251
0.267203 -1.05459 0.40703 0.927131 -0.187483 0.294188 0.150463
0.487044 -0.509833 1.27811 0.918504 0.0373264 0.399574 0.0656626
-0.506062 -0.984037 1.10652 0.970215 -0.232897 -0.0726831 -0.0276121
0.0292011 -0.905585 0.758863 0.817715 -0.202819 -0.495729 -0.216886
0.58039 -0.533315 1.0101 0.946963 0.0340696 0.332354 0.0218085
0.0576411 -0.76381 0.470355 0.775326 -0.103135 0.601488 0.189495
-0.910971 -1.01274 1.00287 0.905249 -0.225025 -0.358878 -0.0966306
-0.652432 -0.41232 1.15382 0.76984 0.0181662 0.625445 0.1047
-0.623565 -1.09934 0.857439 0.962545 -0.24113 -0.0188921 0.047712
-0.283413 -0.708486 0.613064 0.774615 -0.0988664 0.605649 0.182361
0.0525025 -0.568856 0.377304 0.761732 -0.0366371 0.4877 0.148192
-0.36093 -0.572915 0.999091 0.926102 -0.0337818 0.21039 0.0310742
0.333082 -0.572671 0.831441 0.990453 -0.0368684 0.143916 0.0228241
-0.929643 -1.04336 1.34469 0.911653 -0.128384 -0.391692 -0.064182
-0.0542511 -0.573805 0.869689 0.674152 -0.0431329 0.729003 0.152406
-0.142021 -0.787361 0.991349 0.868928 -0.101334 -0.485175 -0.0747209
0.800963 -1.10996 0.0806344 0.925423 -0.17519 0.28938 0.153622
0.42232 -0.95268 1.21194 0.871223 -0.072528 0.486369 0.0803551
0.314833 -1.18652 1.51318 0.838701 -0.203225 -0.4817 -0.179841
-0.844398 -0.72934 0.805282 0.971324 -0.114413 0.204303 0.0771509
-0.221974 -0.755139 0.528036 0.775742 -0.0831658 0.530522 0.17979
0.865863 -0.982984 1.0983 0.900935 -0.0581185 0.432466 0.0601974
-0.484149 -1.00257 1.11259 0.778634 -0.168297 -0.586599 -0.220563
-0.743212 -0.401225 1.25889 0.778314 0.020801 0.629713 0.0979253
0.439776 -0.881262 0.672921 0.829462 -0.116331 0.537453 0.130461
-0.515854 -0.981042 1.30387 0.780165 -0.131088 -0.573692 -0.20836
-0.399572 -0.955982 1.19026 0.848806 -0.152857 -0.499798 -0.119185
0.354 -1.03276 0.521236 0.975384 -0.134848 -0.189009 0.000169108
-0.180508 -0.710374 0.905736 0.924008 -0.076291 0.374268 0.0699631
-0.861943 -0.948583 0.850586 0.861773 -0.242692 -0.440574 -0.138452
-0.670393 -1.0569 1.08087 0.970099 -0.245781 -0.0242898 0.0369796
-1.31535 -1.12975 1.65995 0.961505 -0.105111 -0.261357 -0.0170945
-0.152905 -0.234589 0.557078 0.990698 0.0656123 0.105729 0.0515473
0.514995 -0.729189 0.974057 0.878088 -0.00434559 0.468975 0.140471
0.741434 -1.0904 1.0859 0.977731 -0.130374 0.184156 0.0267525
-0.699033 -0.978263 1.0778 0.976745 -0.105896 -0.195189 -0.0198428
0.350831 -0.932414 0.380944 0.94908 -0.112793 -0.317784 -0.031713
-0.05887 -0.564062 0.866945 0.672917 -0.0426378 0.730042 0.153953
0.46948 -0.732157 1.6174 0.900841 0.107139 0.412729 0.130385
-0.638789 -0.236287 1.50279 0.629456 0.0674472 0.785246 0.0627011
0.404532 -1.10316 1.2973 0.841866 -0.134967 -0.518311 -0.0991663
-0.347903 -0.878056 1.00247 0.952909 -0.124479 -0.264825 -0.0964772
-0.601492 -1.13893 0.833163 0.952039 -0.239299 0.0363994 0.0722415
-0.279182 -1.03851 1.32832 0.740284 -0.11712 -0.630355 -0.216899
-0.44122 -0.401342 1.20188 0.78917 0.0288663 0.617183 0.090945
-0.278174 -1.01884 1.04338 0.97429 -0.207733 -0.109526 -0.0127154
0.752554 -1.21357 1.19463 0.961568 -0.203344 -0.19563 -0.062137
-0.889242 -0.942489 0.802424 0.858426 -0.245685 -0.444532 -0.140578
-0.199652 -0.22679 0.844672 0.939497 0.0458644 -0.341275 -0.0263698
-0.0113211 -0.804019 0.831251 0.945198 -0.0512604 0.305291 0.131449
-0.804701 -1.01788 1.02157 0.897867 -0.225007 -0.37854 -0.0989747
-0.490118 -0.948583 1.15948 0.942738 -0.145343 -0.286887 -0.109819
-0.174296 -0.737089 0.796191 0.83592 -0.0906574 0.529933 0.138329
0.114027 -0.86602 0.557378 0.737273 -0.140686 0.641521 0.187142
0.575243 -1.10954 0.527949 0.810833 -0.201466 0.462114 0.185377
-0.656526 -1.07002 0.930504 0.964111 -0.243698 -0.0451237 0.0323301
0.664492 -1.03666 0.738228 0.879981 -0.156208 0.438888 0.12698
-0.733024 -0.986589 0.978643 0.886228 -0.22634 -0.40178 -0.117724
0.851857 -1.20699 1.05002 0.94151 -0.210111 -0.266227 -0.0899803
-0.868027 -0.525628 1.14091 0.814834 -0.0350865 0.576051 0.112597
-0.636921 -0.228545 1.50237 0.6289 0.0679273 0.785753 0.0632239
0.758351 -1.21788 1.21092 0.962023 -0.203571 -0.194013 -0.0612885
0.834231 -1.08675 0.104078 0.926041 -0.163402 0.305074 0.151979
-0.429856 -0.907475 1.27007 0.827598 -0.149483 -0.497476 -0.212281
-0.607725 -0.965026 0.983088 0.890644 -0.21421 -0.399926 -0.127698
0.429097 -0.701086 1.42243 0.909643 0.0631699 0.397516 0.132614
0.646208 -1.13356 0.413717 0.817457 -0.157811 0.502739 0.240763
-0.162125 -0.210343 0.869985 0.929144 0.044562 -0.369644 -0.0288849
0.136721 -0.753774 1.03206 0.886045 -0.0614131 0.455923 0.0904622
0.207186 -0.610692 0.542084 0.979026 -0.0259825 -0.210224 -0.0102177
0.00459803 -1.1324 1.22808 0.769087 -0.178875 -0.589868 -0.21552
0.11883 -0.334061 0.511016 0.711612 -0.0167034 0.631155 0.152498
0.79616 -1.12011 0.608751 0.928686 -0.143145 0.332011 0.114315
0.202217 -0.806114 0.3837 0.761695 -0.119135 0.616723 0.191292
-0.145149 -0.656821 0.784226 0.712051 -0.0676212 0.690453 0.154996
-0.063097 -0.570499 0.818548 0.682155 -0.0453116 0.721308 0.154435
0.827908 -1.02339 0.483775 0.993948 -0.123038 -0.0204868 0.0388226
-0.295176 -0.351385 0.664911 0.963701 0.0258874 -0.279505 -0.0371982
-0.124799 -0.155512 0.681093 0.997537 0.0869301 0.0330685 0.0304142
0.233329 -0.799881 0.34971 0.816146 -0.0803213 0.53631 0.213383
0.106635 -0.737056 0.566553 0.968963 -0.0762243 -0.244473 -0.0558391
-0.130816 -0.167561 0.69343 0.9977 0.0863857 0.0327836 0.0306054
-0.260708 -1.00532 1.10077 0.975533 -0.214081 -0.0811013 -0.0144905
0.63756 -0.923615 1.07303 0.893169 -0.0596295 0.447972 0.0663242
0.492801 -1.05595 0.497139 0.968416 -0.131157 -0.220603 -0.0115452
-0.110745 -0.767772 0.785216 0.842099 -0.0983597 0.516128 0.139947
-0.391077 -0.812668 0.885348 0.987716 -0.146513 -0.0409387 -0.00486717
-1.03953 -0.36215 1.43672 0.742544 0.0151826 0.670538 0.108094
-0.837795 -0.894008 0.969389 0.982849 -0.0668802 -0.187824 0.0164275
-0.438885 -1.03206 1.0373 0.974245 -0.192692 -0.134448 -0.0132384
0.33197 -0.93969 0.703299 0.814677 -0.150722 0.552827 0.134724
-0.392707 -0.972283 1.04608 0.917338 -0.157513 0.369523 0.0713533
0.77749 -1.2112 1.13404 0.949731 -0.208758 -0.237524 -0.083221
0.553157 -0.945051 1.10359 0.874891 -0.0704484 0.479411 0.0800196
-0.74587 -1.01993 0.966818 0.901779 -0.22329 -0.372334 -0.0979728
0.447746 -1.17928 1.19045 0.933289 -0.237933 -0.270023 -0.0890701
-1.01162 -0.780716 0.879224 0.949827 -0.131265 0.275453 0.0979662
0.688476 -1.03085 0.590523 0.989668 -0.16112 0.0137099 0.0322857
-0.29535 -0.829145 0.462837 0.974541 -0.140514 0.11899 0.0674364
-0.161554 -1.08333 1.15084 0.960652 -0.236066 -0.155439 -0.034682
0.300638 -1.1625 1.19584 0.940133 -0.238569 -0.247055 -0.0757309
-0.579098 -1.01639 1.09692 0.971797 -0.242564 -0.0429374 0.0178507
0.251091 -0.841017 1.09239 0.824288 -0.087011 -0.554817 -0.0953744
0.743137 -1.21709 1.1786 0.931816 -0.232409 -0.283637 -0.091385
-0.0168408 -0.290099 0.748124 0.949698 0.0339788 -0.313684 -0.0323039
-0.768773 -0.972094 0.862806 0.866391 -0.244825 -0.429589 -0.134342
0.540508 -0.66083 0.667776 0.997382 -0.0527936 -0.07325 0.000878245
0.929033 -1.03961 0.552392 0.990502 -0.12065 -0.0817744 0.0239081
0.492412 -1.13201 0.399738 0.909898 -0.199264 0.326227 0.16804
-0.378019 -1.12358 0.788473 0.890575 -0.217821 0.312387 0.150028
0.55772 -1.10735 0.78086 0.947383 -0.181418 -0.269037 -0.0698923
0.587597 -1.23047 1.58767 0.857035 -0.209028 -0.44838 -0.178723
0.505887 -0.802463 0.579824 0.998811 -0.0830375 -0.00242761 0.032907
0.526582 -0.717781 0.640887 0.998676 -0.0670018 -0.0490786 0.011864
-0.138673 -0.212357 0.848863 0.929177 0.0436008 -0.370019 -0.0291382
0.200326 -0.907151 1.04926 0.822043 -0.114685 -0.555793 -0.112475
-0.292941 -0.286558 0.913308 0.950243 0.0454568 -0.309477 -0.019735
-0.772129 -0.964007 0.850042 0.859457 -0.243234 -0.447016 -0.139987
-0.0646533 -0.357747 0.525352 0.965095 0.0327723 0.251789 0.0754143
0.639884 -0.942875 1.09035 0.888826 -0.0636043 0.455472 0.0685112
0.934203 -1.05392 0.53467 0.989034 -0.121968 -0.0982078 0.0229052
-0.741581 -0.258565 1.55699 0.713384 0.060091 0.706365 0.0714321
-0.749137 -1.01868 0.951356 0.902642 -0.224412 -0.36884 -0.0989228
-0.892617 -0.903537 1.08313 0.983185 -0.0710293 -0.180399 0.012981
0.366043 -1.04309 0.62697 0.965202 -0.150646 -0.228065 -0.0414581
-0.164218 -0.666675 0.720552 0.83052 -0.0644248 0.535537 0.164375
0.737142 -1.20735 1.10853 0.940099 -0.224074 -0.262521 -0.0764375
-0.813385 -1.01272 1.04753 0.903548 -0.207979 -0.373387 -0.101129
0.317801 -1.03199 0.817695 0.899989 -0.1465 -0.414064 -0.0759272
-0.0161958 -0.844453 0.759948 0.884094 -0.119342 0.441133 0.128373
-0.00472735 -0.435583 0.669551 0.95521 -0.00241494 -0.301485 -0.0452299
0.0118602 -0.358157 1.37245 0.854304 0.0641226 0.52221 0.0607778
-0.210216 -1.12359 1.42011 0.738818 -0.120445 -0.624413 -0.212338
-0.242889 -1.00243 1.21219 0.880031 -0.206258 -0.399233 -0.168918
-0.302075 -0.800307 0.895084 0.80252 -0.148428 -0.628538 -0.234383
-0.261768 -0.691554 0.877714 0.925741 -0.0780218 0.368804 0.0735608
-0.268386 -0.264882 0.915524 0.948145 0.0521789 -0.31509 -0.0187309
-0.897044 -0.94463 0.82397 0.863721 -0.242119 -0.440975 -0.13686
0.648658 -1.1229 0.30689 0.788553 -0.162533 0.542888 0.251741
0.350586 -1.07643 0.440096 0.917229 -0.193179 0.320215 0.157574
0.534238 -0.714357 0.625845 0.995465 -0.0557136 0.0890758 0.0410579
0.635543 -1.10363 0.353397 0.819159 -0.143655 0.503755 0.241012
-0.353797 -1.05041 1.18979 0.965663 -0.241225 -0.115641 -0.0205073
-0.28119 -0.618899 0.932166 0.890136 -0.0541846 0.449165 0.0963378
-0.641877 -1.06077 1.06951 0.971182 -0.243062 -0.0311571 0.0360118
0.599571 -0.623487 1.02537 0.961872 0.0117531 0.29057 0.00392376
0.191897 -0.985502 0.974247 0.881053 -0.153977 -0.445544 -0.107852
-0.55946 -1.03782 1.13208 0.973776 -0.24133 -0.0296453 0.0293779
0.256369 -0.448694 0.737981 0.993711 -0.016521 0.120533 0.0226868
-0.343094 -0.147404 0.898008 0.906173 0.0817267 -0.420074 -0.00779655
-0.0228724 -0.332046 0.55625 0.963514 0.0360168 0.259515 0.0673205
-0.38812 -0.809633 0.849533 0.987117 -0.151534 -0.029112 -0.00239184
-0.0652724 -0.368374 0.552961 0.962649 0.0306216 0.255873 0.0770004
-0.397927 -0.943117 1.17796 0.854382 -0.150551 -0.490688 -0.117228
0.0597617 -1.21419 1.49002 0.741786 -0.134995 -0.62999 -0.185399
0.0698095 -0.221298 0.300372 0.859885 0.0344312 -0.24635 0.00349519
-1.03081 -0.392157 1.31608 0.751181 0.00738431 0.659087 0.109785
0.409468 -1.06367 0.592597 0.969467 -0.154865 -0.20357 -0.0228378
0.468194 -0.961803 0.45127 0.906167 -0.0992914 0.383571 0.166446
0.318679 -0.960658 1.25694 0.860135 -0.0807806 0.504237 0.0920344
-0.146401 -0.87082 0.774177 0.962444 -0.127477 -0.239734 -0.07197
-0.867673 -0.952778 0.789257 0.873955 -0.238154 -0.429703 -0.1245
-0.311462 -1.05031 1.03264 0.970727 -0.209164 -0.140226 -0.0201373
-0.692526 -1.02633 1.19056 0.927615 -0.192551 -0.311445 -0.106551
0.472133 -0.931245 0.472394 0.898968 -0.0870207 0.405561 0.169935
-0.0390107 -0.216168 0.838646 0.923129 0.0346557 -0.386072 -0.0363714
0.110054 -0.464619 0.614029 0.661327 -0.0401282 0.736387 0.178573
-0.0469619 -0.770376 0.345895 0.985031 -0.107134 -0.0313827 0.0227442
-0.79257 -0.954536 0.840352 0.837772 -0.241191 -0.480992 -0.156122
-0.996765 -0.976465 1.28892 0.979706 -0.0737285 -0.197728 0.00971205
-0.0946842 -0.565916 0.68858 0.822789 -0.0397681 0.552113 0.148991
0.637533 -1.11468 0.361275 0.818653 -0.145395 0.50336 0.243009
0.561695 -0.70934 1.06618 0.963543 -0.0213299 0.281261 0.0260612
-1.13523 -1.00439 1.30193 0.97684 -0.075958 -0.211276 0.0142152
-0.852134 -0.963208 0.869629 0.864047 -0.244113 -0.434218 -0.133381
-1.21984 -1.1029 1.59001 0.967057 -0.0986563 -0.242567 -0.0125287
0.4374 -1.1825 0.494488 0.878523 -0.227612 0.17917 0.124965
-0.330369 -0.814921 1.07775 0.822075 -0.124452 -0.536058 -0.196943
-0.243838 -0.525016 0.932511 0.824721 -0.0305911 0.555501 0.129319
0.75684 -1.21079 1.12558 0.949577 -0.219222 -0.233288 -0.0667365
0.262469 -0.697744 0.590056 0.970015 -0.0346461 -0.248926 -0.0148846
0.48802 -1.01997 0.833977 0.859181 -0.162987 0.480142 0.113283
0.205839 -0.51401 0.553323 0.994337 -0.0411357 0.0891685 0.0357028
-0.881008 -1.02815 1.07117 0.918245 -0.213147 -0.332134 -0.0924434
0.169578 -0.88949 0.936937 0.938383 -0.0328211 0.31961 0.145665
0.487434 -1.09579 0.767367 0.950964 -0.17873 -0.25955 -0.0670232
-0.283733 -0.271396 0.920856 0.949001 0.0517534 -0.312337 -0.0181972
-0.39013 -0.806564 0.64546 0.98078 -0.133824 -0.113206 -0.0270704
-0.902161 -0.932621 1.20348 0.9812 -0.0693679 -0.192389 0.0111367
-0.673157 -0.644606 0.357623 0.963416 -0.0572489 0.237511 0.125533
-0.0357524 -0.36075 0.804122 0.950342 0.0190329 -0.313228 -0.0325307
-0.481789 -0.605271 1.02457 0.740313 -0.0423692 0.666333 0.13144
0.179444 -0.580138 0.555418 0.979399 -0.0274985 -0.210485 -0.0254213
-1.07609 -0.386315 1.36831 0.753585 0.00809675 0.657889 0.109723
-0.29101 -0.702505 0.597753 0.777639 -0.0946557 0.601174 0.185789
-0.842243 -0.91041 0.758463 0.846127 -0.226028 -0.493765 -0.15443
-0.671185 -0.334502 1.45343 0.755743 0.0516611 0.66069 0.0710488
0.188203 -0.600392 0.527497 0.986538 -0.0319523 -0.171462 -0.00813053
0.703686 -1.08376 0.328494 0.91768 -0.145486 0.340908 0.159763
-0.726485 -0.214728 1.5358 0.684193 0.0671547 0.735328 0.0674012
0.252555 -0.890111 1.22843 0.860653 -0.071181 0.502849 0.0989158
0.4558 -0.688524 1.49983 0.906979 0.077153 0.403503 0.130327
-0.0365505 -0.868828 0.781704 0.856496 -0.173328 -0.493403 -0.171683
-0.313626 -0.286431 0.883007 0.951555 0.0465338 -0.30666 -0.0197485
0.457336 -0.757491 1.61049 0.900701 0.113279 0.410224 0.130472
-0.894304 -0.985736 0.907609 0.887073 -0.232293 -0.399319 -0.108759
-0.319258 -0.165721 0.885534 0.903191 0.070122 -0.429163 -0.00998408
-1.16255 -1.10127 1.60126 0.97191 -0.09799 -0.221592 -0.00760747
-0.336614 -0.274362 0.873289 0.954062 0.0585777 -0.294724 -0.0185781
-0.147402 -0.826661 0.881862 0.960288 -0.113016 -0.243653 -0.0901916
0.389316 -0.735916 1.35034 0.915018 0.0455117 0.385275 0.135839
-0.215033 -0.349339 0.66282 0.785835 -0.0391629 -0.57804 -0.119205
-0.612068 -0.412583 1.10014 0.764403 0.0154597 0.618501 0.108916
-0.846607 -1.03192 1.15403 0.917684 -0.209604 -0.332575 -0.100833
-0.81939 -1.00676 0.900964 0.907392 -0.216779 -0.367409 -0.0931821
0.618213 -1.11792 0.464069 0.803432 -0.18155 0.525832 0.226574
-0.332639 -0.670518 0.448316 0.978348 -0.0735623 0.178947 0.0921839
-0.868819 -0.890677 1.03652 0.933416 -0.164334 0.320013 0.0776069
-0.766408 -0.367071 1.25368 0.765757 0.0280085 0.640897 0.103735
0.324019 -0.79272 1.17894 0.92424 0.014826 0.361964 0.139022
0.437812 -1.18661 0.539538 0.891499 -0.229393 0.215816 0.133945
-0.792171 -0.436817 1.32227 0.798648 0.00941564 0.604352 0.0921222
-0.199098 -0.269195 0.590094 0.985047 0.0605138 0.151119 0.0633843
-0.490104 -1.0551 1.08499 0.974621 -0.238019 -0.0226152 0.0370447
-0.29716 -0.276346 0.84592 0.958795 0.0563633 -0.279106 -0.0230081
-0.360694 -1.05393 1.32289 0.749947 -0.126673 -0.612092 -0.215506
0.735799 -1.21447 1.17707 0.932412 -0.231193 -0.282391 -0.0910867
0.336475 -0.84382 0.612951 0.862392 -0.0483061 0.472694 0.193076
-0.243255 -0.271136 0.770946 0.963585 0.0523979 -0.263047 -0.0312902
0.813127 -1.18434 1.24773 0.979759 -0.184219 -0.107354 -0.0253386
-0.00278597 -0.609697 0.385466 0.773803 -0.0513092 0.524418 0.162922
-0.862492 -0.729572 0.589723 0.94156 -0.099414 0.301351 0.136379
-0.156507 -0.572198 0.618152 0.766635 -0.0451194 0.624951 0.174719
0.528578 -0.875571 0.502732 0.978663 -0.0729499 -0.203369 0.00408603
0.028703 -0.907139 0.74403 0.819934 -0.20416 -0.496584 -0.218533
0.838926 -1.02739 0.570503 0.992806 -0.118255 0.0563833 0.0502515
0.878637 -1.1902 0.985353 0.939206 -0.210869 -0.272514 -0.0926886
-0.535305 -0.915769 1.23345 0.784006 -0.125437 -0.563204 -0.220848
-0.0285771 -0.59299 0.81156 0.678612 -0.0502152 0.723 0.160097
0.323708 -0.55578 0.80305 0.990814 -0.034956 0.14181 0.0241878
-0.963231 -0.979603 1.30471 0.978748 -0.0754108 -0.202114 0.0044214
-0.339805 -0.81427 0.697068 0.987832 -0.138337 -0.0378313 0.00535592
0.393212 -1.1756 1.18575 0.932022 -0.239809 -0.272579 -0.0866762
-0.246166 -0.64684 0.422588 0.989187 -0.071342 0.11315 0.0730291
0.392513 -1.11766 1.04864 0.9411 -0.199687 -0.265578 -0.110923
-0.0714293 -0.236663 0.78844 1.00093 0.0444677 -0.00192133 0.0249898
0.365284 -0.91354 0.528672 0.880601 -0.0658107 0.436754 0.19162
0.603162 -0.966999 1.10325 0.876594 -0.0731147 0.476129 0.0773658
0.468238 -1.19179 0.529503 0.891244 -0.225897 0.237681 0.142609
-0.954434 -0.965375 0.955869 0.876318 -0.239088 -0.413838 -0.119106
-0.0395123 -0.567562 0.837709 0.675615 -0.0448329 0.727469 0.154256
-0.260081 -0.264254 0.771572 0.963027 0.0538979 -0.266694 -0.0305765
-0.569986 -1.01686 1.15473 0.972661 -0.242953 -0.0353594 0.0216335
-0.921277 -0.568331 0.678867 0.936449 -0.0582707 0.327605 0.133924
0.152169 -0.898363 0.543879 0.696216 -0.155671 0.673375 0.219803
-0.0151236 -0.286913 0.698362 0.949578 0.0332792 -0.317358 -0.0288057
-0.595302 -0.449061 1.17408 0.8026 0.00852991 0.597667 0.1021
-0.799352 -0.988427 0.882266 0.888869 -0.233397 -0.39478 -0.109713
0.554052 -1.1089 0.311697 0.912441 -0.217719 0.0206976 0.0642303
0.586563 -0.982907 1.04761 0.880693 -0.088419 0.464344 0.0847367
0.399705 -1.11369 1.00766 0.940936 -0.197934 -0.268529 -0.106972
0.603557 -1.1226 0.265128 0.908813 -0.210996 0.0833781 0.0897115
0.288669 -0.777094 0.81569 0.925323 -0.0966795 -0.358617 -0.11234
0.565165 -0.670317 1.35736 0.898113 0.0464762 0.43148 0.121848
-0.271088 -0.24769 0.803884 0.960667 0.060865 -0.272013 -0.0261796
0.404106 -0.960699 1.21367 0.865779 -0.077422 0.494853 0.0853835
-0.0655406 -0.123211 0.380832 0.80218 0.0181127 -0.290132 -0.0431029
0.652093 -0.940306 0.322199 0.986319 -0.153797 -0.0080759 0.0263141
-0.868806 -1.00102 0.806465 0.904978 -0.225137 -0.374062 -0.0908009
0.167633 -0.893188 0.570638 0.705974 -0.144119 0.669102 0.206967
0.587441 -1.00861 0.568422 0.989652 -0.149487 0.0488715 0.04142
0.783746 -1.01947 0.465332 0.96678 -0.113122 -0.23983 -0.0190189
-0.476133 -0.429191 1.50106 0.72367 0.0417277 0.69636 0.0610315
-0.868924 -0.707742 0.791308 0.97154 -0.106611 0.20634 0.0812431
0.270862 -0.477733 1.36917 0.908096 0.0265524 0.418166 0.0902456
0.373866 -0.366559 1.10212 0.922991 0.0617 0.383284 0.0535373
0.42301 -0.909168 0.490041 0.888951 -0.0774022 0.424437 0.178635
-0.974971 -0.468063 1.19907 0.768978 -0.014623 0.635186 0.11955
-0.731102 -0.39691 1.17486 0.763578 0.018941 0.632647 0.109527
0.182475 -0.817681 0.722096 0.722917 -0.0924897 0.675596 0.156325
0.555714 -0.605645 1.54183 0.903397 0.0914118 0.417422 0.112453
0.587705 -1.23663 1.59944 0.853709 -0.208394 -0.454158 -0.180209
-0.542749 -0.41719 1.31783 0.819906 0.0289438 0.575582 0.0747738
-0.397705 -0.123976 0.933089 0.915428 0.109477 -0.388871 -0.00445796
-0.482477 -1.00255 1.26565 0.776271 -0.140377 -0.579875 -0.206586
0.931065 -1.10399 0.777867 0.970987 -0.0969223 0.222179 0.0712098
-0.382976 -0.14177 0.904628 0.934618 0.10088 -0.342236 -0.00927048
0.768329 -1.08028 0.188946 0.954156 -0.147667 0.242394 0.116203
0.570692 -0.981733 0.687814 0.955027 -0.104918 -0.283774 -0.0435548
0.808689 -1.13772 1.19962 0.984645 -0.174872 -0.0716987 -0.0136999
0.168086 -0.592579 0.682135 0.657788 -0.0693365 0.742433 0.176523
-0.886857 -1.02308 1.04761 0.912346 -0.220011 -0.344207 -0.0944226
0.158588 -0.742995 0.75776 0.702084 -0.074266 0.700502 0.153454
0.447722 -0.681632 1.54994 0.901244 0.118606 0.410773 0.122662
-1.02155 -0.783188 0.881607 0.951537 -0.131055 0.26977 0.0980409
-0.870356 -0.959019 0.858605 0.858667 -0.243467 -0.444351 -0.136451
0.518043 -0.762276 0.522749 0.979412 -0.0556046 -0.203298 -0.0156763
-0.270378 -0.822273 0.606183 0.987387 -0.139634 0.00846399 0.025306
-0.894413 -0.721351 0.596837 0.942012 -0.096441 0.30154 0.136103
0.534541 -1.12795 0.923292 0.942629 -0.194329 -0.271362 -0.0893625
-0.726447 -0.392417 1.19409 0.775068 0.00573056 0.631718 0.109008
0.0807222 -0.759858 0.477691 0.699741 -0.112696 0.687207 0.197095
0.48327 -0.959968 0.954027 0.861847 -0.11707 -0.493652 -0.0668687
0.834099 -1.15852 1.20317 0.98244 -0.17868 -0.0906498 -0.0190142
0.836856 -1.03797 0.583069 0.992332 -0.118398 0.0627037 0.0522218
-0.353552 -1.02272 1.28438 0.760525 -0.128402 -0.606852 -0.208739
0.488755 -1.11777 0.943499 0.942315 -0.19217 -0.272107 -0.09459
0.561675 -0.965925 1.05978 0.87724 -0.082166 0.472404 0.0824649
0.419245 -1.21231 1.57407 0.841644 -0.203641 -0.47683 -0.181135
0.596842 -0.94565 0.297725 0.986012 -0.155667 0.0255094 0.0365681
-1.16822 -1.03837 1.39929 0.975852 -0.081861 -0.213021 0.0103525
0.402202 -1.17481 1.19273 0.937195 -0.238184 -0.257297 -0.0821119
0.747503 -1.24233 1.48584 0.874004 -0.229299 -0.407775 -0.170502
-0.125088 -0.447088 0.785965 0.694537 -0.0247428 0.715852 0.145414
0.444515 -0.565321 1.43762 0.898666 0.0245035 0.440491 0.0801911
-0.0337196 -0.564729 0.849594 0.672957 -0.0432878 0.729883 0.153108
-0.811716 -0.437319 1.32203 0.807268 0.00426039 0.592097 0.0952661
0.731636 -0.835299 0.496207 0.935373 -0.0830758 -0.34901 -0.0530116
0.830961 -1.02329 0.497946 0.994058 -0.120789 -0.0269908 0.0376789
0.318906 -0.377975 1.14527 0.916209 0.0567118 0.39964 0.0644576
0.663389 -1.03712 0.328964 0.857078 -0.189848 0.314088 0.130331
-0.895108 -0.94418 0.928402 0.841233 -0.243478 -0.467492 -0.15386
0.796508 -1.23175 1.25796 0.924122 -0.236256 -0.301483 -0.109693
0.644064 -0.945865 0.32492 0.986418 -0.155519 -0.00102085 0.0286189
0.373253 -1.05768 0.753515 0.90355 -0.142952 -0.410658 -0.0584852
0.102335 -0.330514 0.597313 0.681393 -0.0166941 0.696127 0.160946
-0.201565 -0.619777 0.959846 0.708636 -0.0437735 0.69868 0.137385
-1.30622 -1.12023 1.61605 0.954778 -0.109009 -0.283849 -0.0250333
0.0917898 -0.666921 0.618967 0.766687 -0.0691744 0.628675 0.152079
-0.0993587 -0.70606 0.460639 0.790475 -0.0846516 0.581075 0.194219
0.499677 -0.745135 1.06378 0.964838 -0.0351354 0.275882 0.0271095
0.161873 -0.302302 0.445466 0.74958 -0.00880313 0.532727 0.128857
-1.30966 -1.12402 1.65327 0.961382 -0.103893 -0.262515 -0.0185444
-0.344275 -1.19712 0.563827 0.920696 -0.204292 0.226073 0.159394
-0.839629 -1.01055 1.01236 0.904322 -0.202108 -0.378654 -0.0965574
0.52771 -0.505985 0.999433 0.94543 0.0349009 0.33515 0.0276062
0.197096 -0.86861 0.500533 0.687488 -0.14513 0.685639 0.218302
0.829406 -1.01911 0.508318 0.994232 -0.121553 0.00376302 0.0424173
0.161872 -0.929935 0.629197 0.968383 -0.0924789 0.221404 0.103444
0.480729 -0.947429 1.18995 0.877042 -0.0675548 0.476709 0.0746158
0.401522 -1.0337 1.14484 0.859423 -0.126604 -0.494874 -0.0837869
-0.0277068 -0.364427 0.794222 0.943424 0.0149352 -0.334041 -0.0403988
0.248266 -0.828982 0.827512 0.690189 -0.0862347 0.709876 0.155897
-0.392367 -0.473639 1.493 0.771883 0.0478552 0.64328 0.0484487
0.442737 -0.734291 1.03232 0.972186 -0.0410988 0.246862 0.0277156
-0.0936911 -0.715267 0.491533 0.791533 -0.0865456 0.581877 0.191309
0.27593 -0.813194 1.11523 0.927925 0.00498585 0.351328 0.141335
0.732551 -0.892447 0.744078 0.982788 -0.0682264 0.173512 0.0575673
0.0489937 -0.731442 0.45574 0.756144 -0.0815383 0.622248 0.209699
-0.913968 -0.942585 0.857013 0.856584 -0.243965 -0.447599 -0.141756
0.209409 -0.85562 0.996366 0.935385 -0.0205396 0.330966 0.142569
-0.729576 -0.379641 0.83802 0.915442 -0.0265464 0.394709 0.091128
0.190087 -0.891649 0.587461 0.691315 -0.143099 0.683418 0.211356
0.338865 -0.851116 1.12889 0.821246 -0.0816515 -0.562223 -0.0878394
0.16926 -0.560322 0.64287 0.656669 -0.0638899 0.742358 0.181077
0.835183 -1.16492 1.21243 0.981879 -0.179816 -0.0960083 -0.0211029
0.17347 -0.857226 0.479053 0.701397 -0.147046 0.673209 0.214359
-0.120007 -0.797925 1.41783 0.823229 -0.021857 0.570645 0.0769332
-0.916426 -0.688243 0.66497 0.941568 -0.0877679 0.306282 0.135008
-0.858791 -0.947455 0.772984 0.877848 -0.239283 -0.427537 -0.125848
-0.0806904 -0.1423 0.592895 0.992724 0.0945261 0.0525875 0.0315943
-0.0283058 -0.301964 0.675527 0.955441 0.0361048 -0.299607 -0.0249836
0.446702 -1.17796 1.20465 0.936798 -0.236752 -0.258874 -0.0855264
-0.455665 -0.604183 1.0051 0.739147 -0.042311 0.667682 0.133492
0.215299 -0.627469 0.525312 0.979416 -0.0269366 -0.21357 -0.00857801
-0.719415 -0.385219 1.21849 0.780445 0.0100185 0.626052 0.10463
0.546534 -0.512394 1.00438 0.946986 0.0355526 0.331385 0.0241149
-0.406684 -0.956189 1.20366 0.845679 -0.151973 -0.504961 -0.119605
0.756819 -1.11225 0.704912 0.953954 -0.140471 0.261192 0.0756804
-0.227255 -0.342274 0.711489 0.80075 -0.0312239 -0.597984 -0.11209
0.727152 -1.02447 0.517031 0.985715 -0.105606 0.136018 0.0736524
0.19886 -0.843473 0.903247 0.876761 -0.0999442 -0.474897 -0.0582583
-0.496867 -1.02508 1.25719 0.776933 -0.15043 -0.57623 -0.207766
-0.287959 -1.01696 1.30441 0.744367 -0.122447 -0.655613 -0.224283
0.67944 -1.14413 0.960964 0.935864 -0.192175 -0.293045 -0.0957802
-0.265235 -0.264155 0.735119 0.964197 0.0541191 -0.261193 -0.0319303
0.652272 -1.15844 0.443462 0.808461 -0.171563 0.510097 0.242978
0.724047 -1.21259 1.15944 0.935153 -0.230116 -0.274828 -0.085322
-0.841045 -0.897546 1.02563 0.981057 -0.0655081 -0.193338 0.0136881
-0.263314 -0.915823 0.898843 0.915179 -0.149055 0.373381 0.0979046
-0.123283 -0.190142 0.736713 0.999548 0.0720484 0.0230647 0.0302318
-0.859968 -0.89399 1.02412 0.981908 -0.0688085 -0.189535 0.00997641
-0.261871 -0.665683 0.934961 0.889033 -0.0668204 0.446321 0.0950463
0.272628 -0.609287 0.589277 0.977426 -0.0248289 -0.217602 -0.00905991
-0.41311 -0.824311 0.916552 0.986911 -0.149259 -0.0529791 -0.00846313
0.878327 -0.966746 1.0409 0.915673 -0.0594629 0.39998 0.0636434
0.00258136 -0.902822 0.749531 0.788031 -0.204512 -0.51042 -0.227281
0.501651 -0.671393 0.679179 0.996322 -0.0544721 -0.0846368 -0.00175992
0.844106 -1.01672 0.56853 0.993607 -0.117856 0.0442507 0.0461039
0.697073 -1.05045 0.697985 0.889479 -0.152158 0.418475 0.132223
-0.819952 -0.459236 1.25977 0.739127 -0.00773908 0.672102 0.11858
-0.729074 -1.0407 1.19986 0.92251 -0.203156 -0.320502 -0.106284
-0.288107 -1.13855 0.612765 0.890221 -0.205567 0.263187 0.151021
-0.57598 -1.00319 1.19434 0.973911 -0.242325 -0.0126739 0.0225314
0.156851 -0.741682 1.17 0.875325 -0.0331276 0.481694 0.069593
-0.0818497 -0.80778 0.96737 0.871601 -0.102102 -0.482984 -0.0698679
0.142266 -0.598697 0.524493 0.988895 -0.0357734 -0.154019 -0.0012739
0.728832 -1.05184 0.809077 0.776995 -0.126903 -0.617441 -0.0102555
0.420895 -1.17806 1.17158 0.931665 -0.239514 -0.274616 -0.0885395
-0.312077 -1.07627 0.639783 0.893572 -0.203876 0.232279 0.125833
0.583841 -1.03786 0.39181 0.911067 -0.132469 0.359825 0.162626
-0.156532 -0.795074 0.781564 0.776949 -0.151491 -0.494382 -0.173284
-0.122839 -0.546285 0.790084 0.815399 -0.0316622 0.568306 0.139705
0.75299 -1.06329 0.33313 0.971967 -0.119703 0.190359 0.0942513
-0.363531 -0.897852 1.09126 0.946506 -0.126691 -0.28251 -0.108741
-0.273328 -0.917371 1.1225 0.833589 -0.140283 -0.522866 -0.125049
0.0279402 -0.29282 0.705482 0.949591 0.0411143 0.307875 0.0578468
-0.853472 -0.751526 0.819432 0.970512 -0.124439 0.201557 0.0737132
0.258919 -0.477216 0.740378 0.992124 -0.0190906 0.135504 0.0278837
0.409443 -1.00775 0.505195 0.930021 -0.132512 -0.351368 -0.0450469
0.348786 -1.11773 1.34844 0.838014 -0.137692 -0.522646 -0.106391
0.22115 -1.1755 1.49563 0.832594 -0.201844 -0.491736 -0.182054
-0.166945 -0.480402 0.549655 0.460334 -0.0430638 -0.265931 -0.029328
0.306934 -0.97805 0.986231 0.876149 -0.18048 -0.43133 -0.168921
-0.574191 -1.06565 1.06557 0.972885 -0.239775 -0.0268147 0.0382731
-0.260207 -0.995122 1.01963 0.885939 -0.220219 -0.39219 -0.149775
-0.452295 -0.983564 1.0102 0.979928 -0.136458 -0.153796 -0.0157959
-0.623335 -1.06604 1.06872 0.971232 -0.242299 -0.0339583 0.0355664
-0.897874 -1.01884 1.05428 0.911026 -0.219679 -0.348222 -0.0964067
0.954605 -1.02644 0.925504 0.94575 -0.0740975 0.318454 0.0666117
0.201815 -0.46417 0.702726 0.974207 4.90206e-05 -0.233514 -0.025149
-0.504151 -0.993212 1.11315 0.969583 -0.235319 -0.0739176 -0.0211766
-1.3127 -1.12451 1.66445 0.961225 -0.104672 -0.262486 -0.0195204
-0.846641 -1.04109 1.15031 0.920405 -0.207878 -0.328409 -0.0934961
-0.876121 -0.980889 0.828196 0.890892 -0.232325 -0.397984 -0.107826
0.0743284 -0.323587 0.768348 0.648202 -0.013786 0.751782 0.160844
-0.230025 -0.230039 0.858755 0.939248 0.0526404 -0.340822 -0.0221402
-0.0549459 -0.569598 0.620492 0.815364 -0.0394065 0.554085 0.153092
-0.406882 -0.478036 1.26165 0.803577 0.018866 0.600106 0.085935
-0.0936657 -0.143016 0.650771 0.995568 0.0932087 0.0368236 0.0289983
0.140007 -0.412899 0.700785 0.968463 0.0124638 -0.254042 -0.0267776
0.0215633 -0.310974 0.731439 0.960712 0.0338912 -0.279625 -0.0271016
0.846132 -1.20701 1.03747 0.943463 -0.208478 -0.261794 -0.088211
-0.948255 -0.738917 0.803127 0.964612 -0.115226 0.231218 0.09071
0.457046 -0.859944 0.612051 0.829844 -0.110954 0.535221 0.137588
0.926081 -1.08904 0.808476 0.971411 -0.0916684 0.223597 0.0686859
0.128988 -0.687611 0.302485 0.730052 -0.0914179 -0.374971 -0.0485244
-0.831575 -0.947685 0.848222 0.843161 -0.245221 -0.468211 -0.153987
0.553871 -0.960583 1.12239 0.871789 -0.0703495 0.48576 0.0759415
-0.378465 -0.955969 1.18923 0.850361 -0.152243 -0.497258 -0.118569
-0.00786986 -0.793923 0.72609 0.972825 -0.103073 -0.205105 -0.0616156
-0.825873 -0.963929 0.839431 0.866557 -0.244467 -0.432967 -0.133778
-0.0648281 -0.610239 0.362304 0.78571 -0.054731 0.50928 0.163675
0.651628 -0.851262 0.535791 0.93836 -0.0881657 -0.338256 -0.0590639
0.0170077 -0.610988 0.330992 0.620328 -0.0911632 -0.31169 -0.0519729
-0.198922 -1.13404 1.4253 0.738895 -0.121086 -0.626365 -0.212589
0.794626 -1.11756 1.16272 0.986284 -0.173805 -0.0591339 -0.010316
0.227214 -0.860896 0.509587 0.68465 -0.138541 0.69196 0.212327
0.266662 -0.88932 1.21621 0.862681 -0.0722639 0.498181 0.10141
0.937812 -1.09703 0.768598 0.970538 -0.0959177 0.224238 0.0700484
-0.894043 -0.903775 1.08809 0.983099 -0.070182 -0.1812 0.013463
-0.053715 -0.435039 0.804292 0.673338 -0.0245569 0.736521 0.148903
-0.274689 -0.85396 0.932857 0.956074 -0.120749 -0.257439 -0.0954652
-0.830294 -0.536039 1.14899 0.815857 -0.0354268 0.574927 0.111162
-0.860659 -0.727675 0.49898 0.94437 -0.0970236 0.290147 0.138828
0.238038 -0.867848 0.535949 0.754165 -0.140719 0.62565 0.175903
-0.801419 -0.545727 1.15049 0.81661 -0.036308 0.573878 0.110464
-0.229125 -0.720579 1.36705 0.81627 -0.0145564 0.580563 0.0813583
-0.182778 -0.293718 0.60806 0.980616 0.0515923 0.180368 0.0687071
0.178488 -0.862694 0.482695 0.701098 -0.14835 0.673774 0.213185
-0.401934 -0.800486 0.629457 0.982485 -0.132835 -0.104075 -0.0216654
-0.0262608 -0.283824 0.724217 0.948427 0.0385389 0.312493 0.0619709
-0.394563 -0.861024 1.15829 0.806707 -0.125406 -0.547543 -0.18921
0.734023 -1.02528 0.506094 0.986293 -0.107079 0.13035 0.072296
-0.946039 -0.963638 0.84781 0.878152 -0.240209 -0.415784 -0.121523
0.566686 -0.852587 0.510355 0.974567 -0.071144 -0.222987 -0.0123622
0.666129 -1.13174 0.444213 0.821108 -0.166586 0.497051 0.233458
-0.277721 -0.967043 0.655663 0.863693 -0.172205 0.292709 0.121644
-0.264452 -1.09347 1.38044 0.739846 -0.118491 -0.625571 -0.216572
0.312821 -0.835567 0.337744 0.953505 -0.100394 -0.304438 -0.0416342
0.205782 -0.732991 0.394293 0.764592 -0.0927902 0.621183 0.179196
0.763856 -1.13866 0.529222 0.969906 -0.159887 -0.195297 -0.00306169
-0.455518 -0.995179 1.25863 0.757581 -0.121894 -0.600022 -0.223782
-0.0635903 -0.569274 0.45961 0.906269 -0.0423467 0.0810234 0.0359079
-0.519987 -1.02623 1.09857 0.972246 -0.241814 -0.0451447 0.0192762
-0.274051 -0.916523 0.8526 0.926023 -0.147911 0.346389 0.0936219
0.352875 -0.854211 0.26631 0.813264 -0.0870109 0.534426 0.225164
0.625695 -1.07241 0.441842 0.844314 -0.201914 0.342783 0.140985
-0.903218 -0.98398 0.877804 0.887695 -0.232958 -0.399566 -0.108351
-0.8294 -0.890391 0.962314 0.982683 -0.066655 -0.189358 0.015365
-0.808693 -0.933619 0.774581 0.858771 -0.23066 -0.459808 -0.140443
-1.07038 -1.09422 1.5614 0.946047 -0.112327 -0.309795 -0.0477472
0.737515 -1.23524 1.3203 0.915597 -0.24549 -0.315291 -0.126429
-0.284882 -1.03789 1.32842 0.740011 -0.117367 -0.629279 -0.216834
0.446668 -1.17753 1.18152 0.931532 -0.238797 -0.274674 -0.0919789
-0.636912 -1.14396 0.851538 0.952333 -0.23968 0.0157739 0.0656739
-0.400278 -1.05923 1.33832 0.742694 -0.12545 -0.616282 -0.222846
0.109312 -1.13339 1.14378 0.93686 -0.241062 -0.255652 -0.0779795
0.772076 -1.21552 1.20781 0.963955 -0.19972 -0.187617 -0.058846
0.752358 -1.12494 0.900579 0.962141 -0.13586 0.240702 0.0556581
0.586293 -1.01805 0.557083 0.922257 -0.134301 -0.368887 -0.0556883
-0.266337 -0.796278 0.847763 0.987642 -0.131382 -0.0765757 -0.0146557
0.310995 -1.18553 1.47611 0.807195 -0.143312 -0.562396 -0.132951
-0.564668 -1.00812 1.16608 0.973854 -0.243298 -0.0127529 0.0260246
-0.301387 -0.946578 1.26712 0.856895 -0.17509 -0.449348 -0.192729
0.369307 -0.813828 0.450488 0.789462 -0.116357 0.586452 0.1689
-1.30767 -1.12136 1.60486 0.95494 -0.108769 -0.28374 -0.0234143
0.674306 -1.04116 0.335453 0.852362 -0.190864 0.319843 0.133212
-0.548105 -0.434352 1.31546 0.819564 0.0262995 0.576583 0.075239
0.706223 -1.03047 0.266606 0.867413 -0.178064 0.357003 0.148146
0.917549 -1.19193 0.979351 0.939728 -0.20794 -0.273457 -0.0901305
0.755707 -1.11374 0.551993 0.971467 -0.156274 -0.188718 -0.0107451
0.292878 -1.1641 1.17883 0.932783 -0.241914 -0.268366 -0.0852789
0.368118 -0.590001 0.882699 0.988052 -0.0356017 0.16277 0.0137431
-0.713866 -0.391398 1.26256 0.780418 0.0225874 0.627201 0.097182
0.0472298 -0.811864 0.872491 0.823404 -0.127727 -0.596908 -0.14413
0.399448 -0.728274 1.37144 0.913751 0.049125 0.388245 0.135098
0.823293 -1.21472 1.20503 0.971454 -0.193096 -0.156037 -0.0414814
-0.169061 -0.916674 0.542635 0.833315 -0.153531 0.329753 0.129135
-0.261725 -0.715631 0.59875 0.777485 -0.0986786 0.600558 0.186424
0.536655 -1.00488 0.421132 0.912268 -0.120976 0.362533 0.160012
0.188013 -0.849888 0.464421 0.700628 -0.144902 0.675612 0.212952
-1.07977 -0.358167 1.39167 0.748792 0.013633 0.663454 0.107597
-0.247398 -0.324299 0.721435 0.808706 -0.0273915 -0.60663 -0.107553
-0.197399 -0.818968 0.651656 0.975616 -0.126858 -0.165725 -0.0445059
-0.619961 -1.15848 0.890992 0.952288 -0.237939 0.0800561 0.0908556
0.544385 -0.466376 1.02127 0.956238 0.053589 0.303544 0.020559
-0.952984 -0.974173 0.998535 0.881911 -0.237944 -0.4032 -0.113055
0.456484 -0.682767 1.56775 0.900967 0.116856 0.412459 0.122445
0.236043 -1.04797 0.402403 0.932531 -0.185874 0.27961 0.145127
0.77289 -0.72481 0.635324 0.893027 -0.0679315 -0.450095 -0.0431715
-0.987819 -0.383446 1.39181 0.742564 0.0102476 0.670172 0.110804
-0.425654 -0.400508 1.48784 0.653865 0.0479094 0.764261 0.0631315
-0.198719 -0.445627 0.896768 0.797589 -0.0239275 -0.594662 -0.0923117
0.575048 -0.551051 1.00478 0.946858 0.0268366 0.331474 0.0236235
-0.90621 -0.954976 0.870615 0.857201 -0.243163 -0.445645 -0.135797
-0.341738 -0.307622 0.878837 0.954573 0.0448768 -0.29874 -0.0190633
-0.333362 -0.977846 1.17074 0.816001 -0.151465 -0.540706 -0.15031
-0.116427 -0.812899 1.03051 0.859114 -0.13139 -0.476238 -0.18275
-0.999993 -0.987367 1.34815 0.978905 -0.0754451 -0.200813 0.00545076
0.414368 -1.11786 1.01262 0.940486 -0.199018 -0.268458 -0.108572
-0.283978 -0.250871 0.895172 0.948593 0.0588275 -0.312414 -0.0167892
0.440806 -0.624597 0.649716 0.99394 -0.0440814 -0.114687 -0.0097493
-0.420497 -1.03273 1.04098 0.957712 -0.249984 -0.138377 -0.0257964
0.562671 -1.01567 1.11024 0.879442 -0.0904371 0.467564 0.0797657
-0.830492 -0.902309 0.752855 0.849315 -0.225198 -0.492183 -0.154509
0.345385 -0.680549 0.940362 0.981309 -0.045782 0.204169 0.0267238
-0.0395379 -0.522667 0.412555 0.968802 -0.032793 -0.168424 -0.0332516
-0.85585 -0.723699 0.489852 0.944748 -0.0914544 0.289054 0.140268
0.775373 -0.949802 0.423112 0.984255 -0.140882 -0.0942471 -0.00208695
-0.0565625 -0.873641 1.10927 0.895476 -0.137008 -0.402367 -0.151138
0.503937 -0.813633 0.598924 0.998685 -0.0851914 -0.00853917 0.0317612
0.942818 -0.997625 0.95338 0.938333 -0.0687213 0.340472 0.0650725
-0.606941 -1.0141 1.07516 0.97135 -0.241718 -0.0406453 0.0169834
0.483918 -1.13542 0.410021 0.905241 -0.206954 0.310299 0.162476
0.489363 -0.801103 0.558465 0.998736 -0.0828856 0.00468185 0.0356779
0.663055 -1.16002 0.420866 0.801742 -0.170047 0.519199 0.247419
0.49827 -0.883013 1.07249 0.819605 -0.0857926 -0.565902 -0.0748522
0.170373 -0.597601 0.66736 0.658603 -0.0709538 0.740639 0.178739
-0.339649 -0.887865 1.035 0.949546 -0.124764 -0.274404 -0.102917
-0.516985 -0.977707 1.11218 0.971425 -0.23302 -0.0661139 -0.0237577
-1.31271 -1.12148 1.60813 0.955067 -0.109017 -0.283 -0.0226665
-0.928206 -0.962623 0.735528 0.884737 -0.240436 -0.408198 -0.111827
-0.0666506 -0.214037 0.69748 1.00032 0.0496398 0.00432718 0.0269232
0.164959 -0.357058 1.2548 0.895468 0.0547463 0.443079 0.0773381
-0.223364 -0.84567 0.61647 0.770175 -0.122621 0.436495 0.140967
0.137674 -1.02605 0.40252 0.949598 -0.168738 0.237996 0.131905
-0.715099 -0.383041 0.84258 0.914821 -0.0256488 0.3966 0.0918053
-0.32685 -0.604545 0.932158 0.886941 -0.0517694 0.458324 0.0907669
-0.363829 -1.00018 1.27774 0.749142 -0.123785 -0.628831 -0.223824
0.653898 -0.927055 1.07043 0.893707 -0.0602055 0.446733 0.0673593
0.142343 -0.896734 0.908265 0.939405 -0.0376678 0.315521 0.146601
-0.167914 -0.773142 0.806031 0.983997 -0.112992 -0.133287 -0.0382656
0.115664 -0.555924 0.216746 0.80348 -0.0555819 0.0579913 0.0408331
-0.432159 -0.600176 0.97679 0.877924 -0.0499782 0.475149 0.096207
0.0522726 -0.708978 0.971806 0.90262 -0.0577119 0.425167 0.0737325
-0.360092 -1.00691 1.27409 0.752202 -0.12532 -0.63404 -0.22356
0.141404 -0.563947 0.55876 0.99056 -0.0387551 -0.143764 -0.0114725
-0.315879 -1.23696 0.606766 0.907151 -0.195156 0.29435 0.192734
0.296059 -0.472482 1.34676 0.909034 0.0292008 0.417273 0.0856146
0.391475 -1.0191 0.698358 0.981309 -0.134222 -0.150268 -0.0068835
0.16058 -0.434634 0.669254 0.97429 0.0102759 -0.23396 -0.0228525
0.779419 -1.2308 1.27061 0.920787 -0.238515 -0.308508 -0.113389
-0.673735 -1.02744 1.21121 0.929105 -0.189709 -0.308316 -0.107501
-0.439995 -0.397522 1.48086 0.65034 0.0460811 0.767133 0.0661212
0.636427 -0.973218 0.476828 0.983261 -0.13533 -0.125936 -0.00343787
0.780665 -1.1152 0.621494 0.948902 -0.142514 0.275066 0.0888434
-0.670463 -1.10269 0.89111 0.9611 -0.242771 0.00031017 0.0527563
-0.908885 -0.94388 0.849881 0.858787 -0.243809 -0.443769 -0.139376
-0.1492 -0.491263 0.803996 0.760167 -0.0477957 -0.612674 -0.100709
-0.39723 -0.13219 0.923398 0.929078 0.107315 -0.355544 -0.00707835
-1.16255 -1.0983 1.61103 0.948464 -0.110635 -0.302882 -0.0429475
0.00859736 -0.699647 0.96195 0.904946 -0.0583872 0.419566 0.072309
-0.273754 -0.819388 0.631973 0.987956 -0.135402 -0.00746207 0.0204792
-0.217592 -0.259094 0.935067 0.829883 0.0138172 -0.562872 -0.0289438
-0.196614 -0.228453 0.8431 0.934784 0.0445936 -0.354711 -0.0264123
0.266528 -1.15059 1.28067 0.813222 -0.170902 -0.546012 -0.141326
0.670871 -1.10516 0.303253 0.793031 -0.165555 0.540596 0.241374
-0.113407 -0.518274 0.497167 0.930918 -0.0346794 -0.0344453 -0.0042088
0.551245 -0.725553 1.04628 0.963766 -0.0284026 0.277582 0.0299064
-0.634633 -1.00228 1.21663 0.934182 -0.178107 -0.295768 -0.115534
0.798559 -1.09356 0.225191 0.927801 -0.149436 0.314643 0.149741
0.625442 -1.12653 0.355606 0.815233 -0.14108 0.506494 0.250191
0.183996 -1.15298 1.27394 0.780547 -0.170377 -0.580391 -0.179154
0.789847 -0.972556 0.533143 0.972911 -0.100764 -0.218661 -0.0225304
0.102954 -0.484567 0.610365 0.979238 0.00144867 -0.20946 -0.00493865
-0.470088 -0.0445311 0.537973 0.876569 0.0250496 -0.504486 -0.0503107
0.46433 -0.748895 1.62377 0.900586 0.109268 0.412291 0.13099
0.279961 -0.717691 0.58189 0.966761 -0.0371496 -0.260768 -0.0145565
0.814104 -1.02334 0.115465 0.92357 -0.158789 0.327938 0.142356
0.845786 -1.03131 0.084628 0.93397 -0.154887 0.29772 0.13389
-0.770634 -0.949006 0.82138 0.852695 -0.243152 -0.46576 -0.149761
-0.705399 -0.371561 1.30668 0.7638 0.0334318 0.649334 0.0897726
-0.752761 -0.98158 1.22306 0.978417 -0.0984806 -0.192145 -0.0161243
